ply
format ascii 1.0
element vertex 829
property float x
property float y
property float z
property uchar red
property uchar green
property uchar blue
end_header
-0.451486 0.603446 2.181486 144 156 146
-0.446035 0.573361 2.167581 128 160 181
-0.446035 0.573361 2.167581 128 160 181
-0.434592 0.592649 2.170984 80 83 88
-0.429749 0.568026 2.168611 86 87 105
-0.424237 0.584970 2.169000 114 134 167
-0.423493 0.609620 2.196788 121 130 135
-0.396412 0.598705 2.157146 105 122 129
-0.380310 0.555805 2.164062 86 96 95
-0.371301 0.600112 2.159008 92 100 111
-0.363969 0.602091 2.159921 32 33 63
-0.351467 0.580405 2.166666 116 140 150
-0.343623 0.517928 2.143205 67 60 114
-0.390294 -0.170402 2.786238 106 95 103
-0.290250 0.520851 2.138351 38 44 92
-0.325749 0.392787 2.506932 105 97 76
-0.277548 0.442381 2.268522 191 196 190
-0.273922 0.460272 2.259595 175 182 175
-0.330523 -0.313175 2.747163 57 49 60
-0.270876 0.453248 2.267659 60 62 61
-0.269819 0.448188 2.271997 168 175 185
-0.270153 0.438536 2.277726 71 82 74
-0.248060 0.599779 2.149134 92 84 133
-0.275350 0.316721 2.529497 38 37 32
-0.237081 0.504239 2.190453 145 160 179
-0.270788 0.312208 2.532243 148 134 108
-0.259169 0.415354 2.425049 225 243 243
-0.267436 0.318595 2.540217 42 43 37
-0.239073 0.444677 2.279198 138 144 144
-0.286457 -0.364502 2.737348 99 78 75
-0.223371 0.503339 2.185699 165 172 198
-0.220898 0.497699 2.190348 86 86 86
-0.214067 0.499534 2.187512 146 160 169
-0.217055 0.449873 2.280607 129 146 140
-0.212655 0.448773 2.284360 45 49 52
-0.227419 0.287620 2.547436 61 57 54
-0.200521 0.448822 2.287898 152 163 159
-0.200056 0.444686 2.291972 52 55 46
-0.218909 0.270224 2.544679 80 88 77
-0.234154 -0.364222 2.735168 94 80 80
-0.233324 -0.308023 2.741999 146 137 140
-0.190690 0.464881 2.290992 19 17 18
-0.189083 0.453054 2.293447 35 36 38
-0.208754 0.289034 2.544390 44 68 55
-0.189123 0.436780 2.308281 171 179 168
-0.172267 0.545673 2.140973 98 105 98
-0.177154 0.443802 2.307237 45 47 62
-0.188611 0.291014 2.538835 149 168 140
-0.158478 0.552353 2.141934 111 138 167
-0.170828 0.447060 2.313227 40 37 32
-0.185600 0.297054 2.539007 31 56 52
-0.155025 0.523098 2.130309 71 59 105
-0.154484 0.573216 2.146146 133 170 196
-0.139512 0.532914 2.131914 46 45 102
-0.152154 0.436664 2.342479 172 178 174
-0.150849 0.454630 2.328458 22 22 20
-0.138780 -0.007804 2.511148 70 70 72
-0.130231 0.433659 2.384624 21 24 33
-0.117436 0.494672 2.196472 77 73 70
-0.110989 0.595086 2.143930 51 46 66
-0.117393 -0.015781 2.495815 141 137 136
-0.109337 -0.069586 2.486860 169 174 170
-0.086026 0.568909 2.135197 120 149 163
-0.089093 -0.052216 2.476943 172 178 178
-0.085549 -0.030851 2.477716 120 118 119
-0.081596 -0.098688 2.473251 173 160 154
-0.080847 0.014920 2.486010 55 60 54
-0.074582 0.024289 2.489943 63 64 58
-0.072314 -0.084323 2.469820 185 200 197
-0.071038 -0.055260 2.467675 162 176 177
-0.070741 -0.121028 2.475607 188 189 184
-0.068070 -0.091659 2.470457 175 190 187
-0.067335 -0.050017 2.472193 49 43 55
-0.055054 -0.104166 2.466724 179 190 184
-0.054099 -0.114787 2.468138 167 168 160
-0.054620 0.057946 2.498669 143 164 169
-0.052680 -0.093769 2.462843 191 203 203
-0.052680 -0.093769 2.462843 191 203 203
-0.050412 -0.109620 2.466374 90 78 78
-0.047066 -0.034451 2.464142 47 51 52
-0.040404 -0.085121 2.461064 178 198 189
-0.040150 -0.024848 2.464311 50 55 58
-0.038803 -0.031090 2.461823 164 177 183
-0.030244 0.568178 2.130653 78 99 128
-0.030244 0.568178 2.130653 78 99 128
-0.036381 -0.329740 2.653865 87 108 111
-0.035421 -0.316037 2.650652 29 37 40
-0.027708 0.594872 2.132354 40 36 50
-0.026828 0.585180 2.132476 61 84 98
-0.030716 -0.107685 2.460507 166 162 153
-0.030073 -0.021018 2.462168 93 97 98
-0.027684 -0.002755 2.466164 75 90 83
-0.027638 -0.013444 2.464111 83 89 85
-0.025144 -0.021859 2.461037 149 167 167
-0.024643 -0.039433 2.459754 59 63 62
-0.024643 -0.039433 2.459754 59 63 62
-0.023184 -0.132906 2.464714 136 115 110
-0.023482 0.120811 2.538496 99 122 114
-0.018816 0.476666 2.268838 163 183 184
-0.020893 -0.344554 2.638296 115 135 146
-0.018769 -0.051535 2.454869 76 72 69
-0.018769 -0.051535 2.454869 76 72 69
-0.018662 -0.009267 2.463821 152 173 176
-0.019178 0.321932 2.577240 60 86 83
-0.018101 -0.021507 2.459175 114 118 117
-0.017825 -0.058380 2.455445 149 167 167
-0.017109 -0.041765 2.460732 82 84 73
-0.014560 -0.047592 2.457620 156 171 178
-0.014334 0.039694 2.479238 157 173 163
-0.013156 -0.093249 2.455547 162 163 155
-0.012815 0.008749 2.467668 113 117 118
-0.011281 -0.002952 2.463090 114 120 110
-0.009952 -0.198979 2.490875 200 177 169
-0.008650 -0.184651 2.483571 201 198 191
-0.009263 0.240806 2.717345 25 36 32
-0.008170 -0.098808 2.456651 114 103 99
-0.008378 0.289264 2.908726 41 40 45
-0.008378 0.289264 2.908726 41 40 45
-0.006585 -0.093395 2.455164 155 154 149
-0.004454 0.026626 2.472149 150 168 170
-0.004454 0.026626 2.472149 150 168 170
-0.004418 0.121405 2.531315 36 44 57
-0.003966 0.032797 2.476499 152 176 178
-0.004076 -0.326952 2.674265 30 31 26
-0.002687 -0.185544 2.483352 137 133 134
-0.002117 -0.085049 2.455074 172 196 200
-0.001988 -0.045167 2.456279 92 95 86
-0.000197 0.255266 2.716268 123 136 129
-0.000094 0.028321 2.473034 96 104 107
0.000912 -0.057115 2.453150 124 135 131
0.001258 -0.204339 2.494631 210 209 204
0.002036 -0.146525 2.464258 198 190 177
0.002389 0.045545 2.479779 99 110 112
0.002693 0.022701 2.470849 146 167 162
0.003953 -0.206312 2.491536 201 183 179
0.005248 0.066122 2.496817 71 72 66
0.005447 -0.100214 2.454530 156 145 139
0.006355 0.279926 2.712714 74 77 66
0.006311 -0.314044 2.662925 72 80 83
0.006439 0.053042 2.484676 62 73 69
0.007106 0.017627 2.465992 98 101 90
0.010803 0.089977 2.505791 37 40 47
0.011215 0.075088 2.496196 109 110 104
0.011071 -0.108286 2.454258 166 172 162
0.011497 0.020752 2.469258 148 168 166
0.012283 -0.171761 2.475952 204 222 224
0.013649 0.096476 2.512046 43 45 44
0.011730 0.590134 2.136187 108 139 168
0.015900 0.281021 2.715198 83 84 68
0.015149 -0.089731 2.451947 153 157 143
0.016201 -0.107790 2.453649 102 96 98
0.016712 0.104516 2.516498 51 52 54
0.016604 0.022271 2.471697 146 168 166
0.018936 -0.118909 2.454859 184 185 179
0.018936 -0.118909 2.454859 184 185 179
0.020414 -0.110585 2.454745 188 189 183
0.020515 -0.114714 2.454617 51 45 49
0.021743 -0.214893 2.501715 88 84 81
0.021353 -0.065120 2.451025 172 181 178
0.023010 -0.074296 2.451728 48 48 46
0.024562 0.071823 2.493444 108 110 107
0.026829 -0.372300 2.717370 93 87 91
0.024777 -0.152334 2.467636 189 200 184
0.024777 -0.152334 2.467636 189 200 184
0.025851 0.122608 2.531889 44 46 45
0.025441 0.067113 2.488570 53 59 59
0.023062 0.574925 2.135765 95 122 133
0.023062 0.574925 2.135765 95 122 133
0.026717 -0.109902 2.454152 103 94 79
0.027315 0.019421 2.465976 154 170 170
0.027208 -0.109518 2.452959 102 98 87
0.027573 0.050054 2.482528 118 129 135
0.027351 -0.077680 2.451871 157 176 174
0.028367 0.370803 2.525909 54 72 74
0.028402 -0.091549 2.451906 118 123 117
0.029189 -0.052625 2.452479 45 51 51
0.025666 0.573156 2.130419 93 118 138
0.025666 0.573156 2.130419 93 118 138
0.029763 -0.098351 2.452392 162 176 177
0.030157 -0.081125 2.452004 109 120 104
0.032317 0.024495 2.468151 105 122 116
0.032131 -0.058396 2.452374 137 149 149
0.033442 -0.010551 2.458456 148 167 163
0.036311 0.051347 2.480388 119 138 152
0.036778 0.005792 2.461506 146 167 170
0.036783 -0.054504 2.454315 39 45 41
0.038677 -0.027565 2.455289 159 168 173
0.040018 -0.090789 2.452479 173 189 178
0.035904 0.546935 2.127576 91 114 145
0.041515 -0.099364 2.453908 167 175 177
0.043222 -0.081052 2.452246 136 150 135
0.045041 -0.124902 2.456492 183 195 191
0.046119 0.018848 2.467219 67 82 79
0.046119 0.018848 2.467219 67 82 79
0.046126 -0.094683 2.452226 76 82 72
0.047624 -0.062632 2.452652 127 140 131
0.048247 -0.100218 2.452182 178 200 197
0.049021 0.062297 2.488801 55 45 46
0.048866 0.029623 2.472330 33 43 52
0.043223 0.524918 2.118352 65 62 91
0.050261 -0.089721 2.453078 143 145 142
0.051337 0.008307 2.464642 88 87 92
0.055685 0.017081 2.468428 128 158 160
0.056118 -0.084876 2.453551 72 67 61
0.056118 -0.084876 2.453551 72 67 61
0.056542 -0.118821 2.456154 179 191 191
0.058094 -0.077799 2.457773 122 118 109
0.058049 -0.099830 2.454133 169 174 168
0.059575 -0.029783 2.457083 138 147 142
0.060252 -0.069019 2.455414 73 72 67
0.062057 0.079999 2.500078 51 46 53
0.062567 -0.090958 2.455056 163 161 146
0.063182 -0.106064 2.456272 62 62 52
0.064368 0.050997 2.483292 65 79 80
0.065823 0.044146 2.481866 132 151 158
0.065679 -0.035570 2.456618 162 179 173
0.065842 -0.121221 2.458188 187 203 202
0.065842 -0.121221 2.458188 187 203 202
0.072754 -0.374058 2.710588 116 102 115
0.067490 -0.110325 2.457419 143 148 142
0.067984 -0.092147 2.455665 145 140 121
0.059208 0.548208 2.125502 98 125 152
0.069414 0.053029 2.483973 114 135 136
0.059887 0.588395 2.136696 122 153 182
0.070154 -0.127825 2.460774 69 78 75
0.065128 0.365890 2.224003 59 69 70
0.071918 -0.085731 2.454873 131 121 112
0.072127 -0.113841 2.458227 73 70 65
0.066928 0.348979 2.226059 41 52 80
0.075230 -0.081675 2.459717 114 107 91
0.068108 0.357032 2.225437 54 70 103
0.077943 -0.116750 2.458634 181 182 174
0.078431 -0.105541 2.458345 141 140 136
0.078816 0.006322 2.469376 151 172 177
0.071317 0.362485 2.223814 199 229 255
0.079944 -0.059712 2.455861 170 179 176
0.080570 -0.078239 2.456577 48 44 41
0.081061 -0.071588 2.456495 47 51 63
0.081061 -0.071588 2.456495 47 51 63
0.083266 -0.068153 2.458338 52 59 65
0.075570 0.358289 2.222898 41 39 53
0.083806 -0.108936 2.459408 152 145 129
0.085672 0.075822 2.500629 54 48 60
0.084394 -0.126069 2.460780 186 206 197
0.084649 -0.080337 2.456542 131 119 107
0.084990 -0.058321 2.457202 73 88 83
0.087185 0.065537 2.493777 70 68 71
0.077766 0.349991 2.219662 48 62 71
0.086199 -0.113925 2.459579 171 169 157
0.088172 0.059279 2.491507 111 130 134
0.088442 -0.065619 2.460225 69 68 66
0.079978 0.362793 2.222988 173 204 235
0.079978 0.362793 2.222988 173 204 235
0.088703 -0.023875 2.462864 154 173 171
0.089648 -0.158491 2.474093 201 223 221
0.091207 -0.008374 2.464462 137 162 166
0.101301 -0.365621 2.714521 107 97 96
0.091787 -0.106790 2.457794 126 102 90
0.093738 0.054144 2.493232 59 71 59
0.083695 0.358182 2.223587 42 57 86
0.093391 0.003784 2.469614 123 148 142
0.093391 0.003784 2.469614 123 148 142
0.101220 0.221099 2.672933 96 96 88
0.084078 0.390223 2.209913 43 71 118
0.095895 -0.093957 2.457948 117 99 89
0.086623 0.399118 2.207218 46 75 115
0.098429 -0.181173 2.485351 215 231 220
0.098586 -0.045229 2.461135 119 130 122
0.100050 0.059354 2.496825 52 63 65
0.098972 -0.138242 2.466880 166 185 183
0.108434 0.237107 2.689112 4 13 8
0.099378 -0.058196 2.460635 116 129 111
0.109311 0.236587 2.686608 6 15 12
0.088011 0.589163 2.154800 100 106 130
0.103138 0.055668 2.494128 109 131 144
0.102625 -0.013241 2.466809 150 170 181
0.092988 0.452780 2.199169 71 104 157
0.105122 -0.130918 2.465876 198 218 207
0.095251 0.346403 2.228456 83 125 175
0.105751 -0.140384 2.470566 195 206 200
0.106210 -0.114355 2.463211 164 169 162
0.097482 0.361658 2.227968 77 105 153
0.108180 -0.076432 2.461561 156 179 173
0.108687 -0.130040 2.467716 195 208 199
0.097543 0.400745 2.212907 54 63 68
0.110778 0.078404 2.511057 41 44 53
0.110650 -0.143585 2.472058 195 220 216
0.100284 0.349475 2.228264 32 41 80
0.111508 -0.066063 2.463106 163 172 169
0.114254 -0.219411 2.518024 197 209 199
0.111894 -0.093399 2.462818 179 199 190
0.114172 0.071311 2.506936 109 107 110
0.122109 0.218203 2.670274 87 95 80
0.101883 0.395884 2.216541 154 177 193
0.103687 0.430927 2.217993 171 199 202
0.115634 -0.077656 2.464287 159 177 177
0.117894 0.068162 2.508679 57 63 63
0.117720 -0.116993 2.469499 170 188 174
0.120404 -0.215850 2.517133 243 255 249
0.121483 0.063262 2.504744 130 151 168
0.119428 -0.089419 2.461935 166 187 180
0.121260 -0.004125 2.476247 156 184 187
0.122314 0.041657 2.493774 134 160 173
0.109002 0.403210 2.219448 53 73 84
0.123001 0.050982 2.499452 146 167 162
0.121971 -0.078644 2.466162 145 171 172
0.110706 0.371625 2.231984 103 134 165
0.126510 -0.241670 2.546460 96 100 101
0.133971 0.229300 2.670937 92 94 89
0.124904 -0.180220 2.489924 212 228 227
0.111618 0.424453 2.219250 64 71 79
0.111618 0.424453 2.219250 64 71 79
0.111968 0.431050 2.218741 155 186 206
0.128043 0.081220 2.521795 28 42 68
0.125919 -0.136574 2.475961 214 226 216
0.113716 0.384171 2.227538 55 83 122
0.126816 -0.159671 2.483061 196 216 207
0.114836 0.396796 2.227424 159 186 197
0.116511 0.418253 2.222497 168 195 204
0.130094 -0.075982 2.471442 61 54 46
0.130094 -0.075982 2.471442 61 54 46
0.130680 -0.006540 2.478667 155 184 182
0.118295 0.412312 2.228553 45 55 65
0.143990 0.222982 2.670744 85 83 84
0.135933 0.062890 2.517608 115 149 174
0.120106 0.425930 2.223686 166 192 193
0.147353 -0.323479 2.717943 54 49 56
0.150194 -0.306906 2.713974 121 104 110
0.141918 0.084041 2.528749 31 37 61
0.125659 0.421084 2.232014 39 47 49
0.127690 0.391347 2.236053 153 183 193
0.143568 -0.159309 2.490293 176 187 181
0.143568 -0.159309 2.490293 176 187 181
0.147377 0.080478 2.532748 73 92 122
0.147239 -0.213472 2.527300 113 125 125
0.148644 0.391441 2.544128 44 93 100
0.144685 -0.081335 2.474523 62 63 65
0.145366 -0.048505 2.476790 172 187 180
0.131762 0.429233 2.236105 162 191 195
0.132053 0.384656 2.240020 56 74 114
0.147669 -0.040156 2.479041 161 173 173
0.148916 -0.076377 2.476779 184 192 179
0.148916 -0.076377 2.476779 184 192 179
0.149968 -0.027944 2.482121 165 185 184
0.164286 -0.322282 2.716416 124 109 112
0.150524 -0.021753 2.483630 157 179 177
0.165067 -0.317611 2.715608 71 60 74
0.151783 -0.013454 2.486795 150 174 184
0.136971 0.403964 2.242050 49 68 82
0.152817 0.014796 2.498075 152 171 185
0.152497 -0.143387 2.489539 196 219 213
0.153289 -0.170453 2.501797 187 194 186
0.138011 0.390937 2.244195 149 182 199
0.153865 -0.154737 2.494161 194 209 202
0.153397 -0.081991 2.478900 82 86 61
0.153397 -0.081991 2.478900 82 86 61
0.153419 -0.057441 2.478828 162 181 175
0.155473 -0.049202 2.481880 171 183 179
0.140611 0.415938 2.241080 137 167 178
0.156867 0.006697 2.497050 37 53 69
0.156867 0.006697 2.497050 37 53 69
0.170811 -0.378683 2.706952 93 90 111
0.141608 0.436839 2.239544 61 92 139
0.158143 -0.056896 2.480842 135 150 127
0.158940 -0.014689 2.490611 149 178 182
0.144698 0.391716 2.248967 65 77 91
0.161609 0.008373 2.499794 143 171 182
0.148159 0.448020 2.245583 79 99 149
0.164312 -0.059087 2.484755 134 147 130
0.148730 0.419295 2.248948 60 71 75
0.148730 0.419295 2.248948 60 71 75
0.165426 -0.025203 2.488618 121 148 159
0.180165 -0.377236 2.709621 106 100 112
0.165632 -0.112273 2.489023 168 180 166
0.170877 -0.202946 2.532288 219 239 228
0.170932 -0.081812 2.488882 170 198 186
0.172807 -0.158743 2.508162 200 211 205
0.188066 -0.388275 2.702531 180 177 168
0.176439 -0.149649 2.507397 207 218 204
0.176278 -0.032566 2.495657 104 124 125
0.183507 0.416851 2.587727 62 71 68
0.179204 -0.155393 2.510268 60 59 67
0.179204 -0.155393 2.510268 60 59 67
0.182015 0.050986 2.534792 113 152 183
0.182050 -0.161709 2.511609 197 215 215
0.184846 -0.151941 2.510692 197 217 208
0.187064 -0.103591 2.502528 173 199 198
0.191842 0.426082 2.563266 192 209 203
0.191180 0.060285 2.550025 110 144 182
0.188460 -0.064017 2.498011 120 132 118
0.189483 -0.107236 2.503293 185 201 198
0.191407 -0.086899 2.501144 167 184 178
0.192885 -0.052859 2.503322 116 127 129
0.209636 -0.383516 2.701821 190 180 181
0.194898 -0.105278 2.505807 90 108 94
0.194898 -0.105278 2.505807 90 108 94
0.196209 -0.097451 2.506514 71 86 79
0.196778 -0.045183 2.506244 110 120 121
0.198744 -0.031850 2.514666 47 47 57
0.198744 -0.031850 2.514666 47 47 57
0.199869 -0.164070 2.527861 176 200 202
0.220665 0.399246 2.776664 158 152 138
0.201723 -0.037770 2.511867 143 167 167
0.202340 -0.105052 2.509326 184 205 200
0.218568 -0.377224 2.699033 70 57 64
0.209134 0.008198 2.532558 139 164 184
0.229771 0.387411 2.782029 63 51 63
0.230203 -0.326734 2.710483 78 65 74
0.230203 -0.326734 2.710483 78 65 74
0.230358 -0.336616 2.709377 60 56 53
0.201722 0.476454 2.351406 113 116 125
0.238172 0.391365 2.774909 173 164 131
0.233745 -0.358376 2.704676 100 94 96
0.234933 -0.369812 2.694097 136 137 105
0.221784 -0.047725 2.527062 60 75 72
0.224013 -0.161955 2.550653 189 199 190
0.239658 -0.342184 2.704955 119 106 115
0.227016 0.008846 2.551048 96 120 146
0.242559 -0.353959 2.704383 97 84 93
0.232294 -0.173470 2.576339 173 185 185
0.250786 0.374639 2.771900 52 47 51
0.192304 0.555616 2.116014 108 145 171
0.250409 -0.281397 2.712885 123 111 111
0.253605 -0.378729 2.695895 109 111 97
0.240121 -0.035036 2.551152 42 57 90
0.254926 -0.388609 2.693124 188 190 176
0.255365 -0.363278 2.692091 124 127 106
0.244531 -0.087462 2.547685 69 76 94
0.246624 -0.047745 2.556436 61 62 66
0.265082 -0.270116 2.714248 93 74 78
0.251529 -0.043612 2.562200 115 116 136
0.275184 0.424130 2.778277 160 151 122
0.256167 -0.119523 2.567871 141 136 114
0.256590 -0.049873 2.568570 55 61 77
0.273079 -0.381219 2.691691 86 91 84
0.284929 -0.386213 2.689872 101 112 104
0.288240 -0.374126 2.692080 92 100 87
0.291655 -0.322648 2.703272 65 46 50
0.292112 -0.337786 2.698621 59 54 48
0.293938 -0.390310 2.682358 177 182 175
0.296923 -0.348140 2.695028 145 150 118
0.298430 -0.370383 2.690899 149 148 118
0.300020 -0.331675 2.698855 143 146 115
0.302929 -0.381531 2.689741 94 99 95
-0.391544 -0.370789 2.794958 96 83 90
-0.391544 -0.370789 2.794958 96 83 90
-0.392433 0.252468 2.854912 81 95 140
-0.366329 -0.318673 2.761007 126 105 114
-0.369614 -0.076544 2.788154 113 104 107
-0.330720 0.375393 2.509798 105 76 46
-0.359867 -0.327533 2.758831 53 49 50
-0.361708 -0.180226 2.775804 47 43 44
-0.361813 -0.168213 2.776843 45 44 50
-0.361813 -0.168213 2.776843 45 44 50
-0.360811 -0.150420 2.779404 51 47 48
-0.360020 0.017701 2.795201 41 40 45
-0.360020 0.017701 2.795201 41 40 45
-0.355641 -0.171123 2.776361 119 110 115
-0.355778 -0.161099 2.777408 102 94 107
-0.354449 -0.096415 2.783186 119 104 111
-0.353381 -0.038777 2.789868 115 99 112
-0.350166 -0.257180 2.766378 106 99 107
-0.352812 -0.011610 2.790610 119 103 114
-0.286283 0.441284 2.275708 98 112 113
-0.350861 0.129345 2.805335 119 107 121
-0.349737 0.083949 2.801720 124 113 121
-0.349332 0.114568 2.804306 122 111 125
-0.342444 -0.288882 2.762555 117 107 115
-0.270860 0.452820 2.267501 60 62 61
-0.269526 0.447252 2.269518 168 175 185
-0.269526 0.447252 2.269518 168 175 185
-0.248387 0.600368 2.151966 92 84 133
-0.317743 -0.293444 2.759277 110 108 111
-0.316874 -0.134664 2.776297 124 109 112
-0.316874 -0.134664 2.776297 124 109 112
-0.319817 0.145009 2.804150 66 64 75
-0.319238 0.176278 2.804835 84 67 83
-0.314977 -0.127647 2.778771 67 66 80
-0.314711 -0.105494 2.778591 125 108 114
-0.311011 -0.122351 2.777807 117 108 113
-0.311011 -0.122351 2.777807 117 108 113
-0.310393 -0.151166 2.774212 67 66 74
-0.309814 -0.144159 2.773354 121 108 117
-0.309814 -0.144159 2.773354 121 108 117
-0.309175 -0.112499 2.777392 76 61 68
-0.252613 0.456901 2.270317 41 53 65
-0.303900 -0.286120 2.758628 97 91 95
-0.303900 -0.286120 2.758628 97 91 95
-0.233860 0.548035 2.147126 111 145 157
-0.299712 -0.248005 2.764117 125 109 119
-0.297864 -0.274347 2.759210 111 100 104
-0.261351 0.412875 2.442947 77 88 106
-0.293300 -0.343261 2.750550 126 115 129
-0.241246 0.452000 2.275032 126 124 109
-0.239237 0.465074 2.261936 34 38 39
-0.240288 0.456821 2.274447 34 35 29
-0.290620 -0.257611 2.761143 133 123 124
-0.290734 -0.197236 2.767925 67 65 78
-0.289335 -0.225262 2.764322 52 50 61
-0.289335 -0.225262 2.764322 52 50 61
-0.267765 0.258804 2.568702 88 87 85
-0.286827 -0.306760 2.753684 105 103 108
-0.286827 -0.306760 2.753684 105 103 108
-0.267381 0.259305 2.569765 88 87 85
-0.290836 0.180834 2.805044 70 60 84
-0.287492 -0.133187 2.773171 67 60 78
-0.281837 -0.327067 2.751663 75 71 70
-0.262796 0.280185 2.572665 75 62 46
-0.259053 0.273059 2.573825 103 97 85
-0.273761 -0.309267 2.751173 66 66 76
-0.273696 -0.303638 2.750503 116 101 106
-0.272610 -0.261584 2.758487 61 65 66
-0.271160 -0.284105 2.754889 117 106 112
-0.270622 -0.342143 2.751594 127 110 118
-0.270622 -0.342143 2.751594 127 110 118
-0.214281 0.499178 2.189638 146 160 169
-0.213233 0.494221 2.192940 87 90 97
-0.266259 -0.259841 2.758388 114 104 102
-0.266259 -0.259841 2.758388 114 104 102
-0.260445 -0.195042 2.763104 70 58 80
-0.259138 -0.237903 2.759561 53 51 62
-0.258652 -0.254755 2.758675 68 60 73
-0.212512 0.448035 2.282787 45 49 52
-0.256260 -0.211099 2.761131 66 67 72
-0.199149 0.528444 2.152626 48 50 91
-0.254394 -0.274072 2.755951 58 57 63
-0.207832 0.470712 2.285655 60 69 68
-0.247541 -0.279954 2.754738 54 49 56
-0.245205 -0.363860 2.745712 132 123 126
-0.228421 0.315412 2.564617 20 30 22
-0.243837 -0.268578 2.753136 132 126 128
-0.221892 0.283714 2.545277 76 79 68
-0.219329 0.270554 2.549608 80 88 77
-0.184342 0.556528 2.147024 101 119 119
-0.184342 0.556528 2.147024 101 119 119
-0.234914 -0.365466 2.743970 94 80 80
-0.195942 0.446473 2.293319 128 139 143
-0.233988 -0.308553 2.749535 146 137 140
-0.230068 -0.301638 2.748192 58 55 72
-0.176469 0.549499 2.140292 127 153 176
-0.225746 -0.297504 2.747967 111 107 106
-0.225300 -0.274848 2.752707 111 102 107
-0.223580 -0.337531 2.745377 86 73 82
-0.222665 -0.322465 2.746294 82 72 73
-0.172328 0.545762 2.141713 98 105 98
-0.203081 0.315589 2.541075 30 36 34
-0.203260 0.276174 2.549463 39 64 60
-0.173902 0.498518 2.182835 56 62 60
-0.215964 -0.222883 2.757966 108 100 113
-0.166369 0.522245 2.127174 66 56 108
-0.214543 -0.310451 2.746742 53 51 54
-0.168379 0.506227 2.176021 154 163 180
-0.211372 -0.240819 2.754516 109 100 105
-0.192819 0.288128 2.543300 35 70 64
-0.188833 0.290190 2.541698 149 168 140
-0.158352 0.551448 2.140178 111 138 167
-0.185661 0.295875 2.539458 31 56 52
-0.185658 0.280653 2.547571 171 183 169
-0.154815 0.522558 2.127445 71 59 105
-0.184630 0.294405 2.542599 44 64 65
-0.154611 0.480645 2.132724 148 166 214
-0.154281 0.572146 2.143278 133 170 196
-0.197087 -0.292159 2.746849 129 112 118
-0.192128 -0.364821 2.742439 119 97 99
-0.175476 -0.073622 2.544795 157 147 138
-0.143849 0.578431 2.139708 99 108 113
-0.145871 0.506470 2.183428 143 142 160
-0.176956 -0.164946 2.678811 174 151 143
-0.161954 -0.065210 2.528902 126 105 104
-0.161199 -0.015999 2.538474 127 127 127
-0.166267 -0.310478 2.742183 62 60 71
-0.127947 0.520899 2.163023 111 97 112
-0.125528 0.524400 2.125803 61 55 99
-0.148743 -0.015242 2.526245 47 49 62
-0.145988 -0.062338 2.516312 100 92 81
-0.143533 -0.012202 2.518153 136 132 129
-0.143320 -0.087697 2.515871 165 161 160
-0.140792 -0.128813 2.526068 176 168 155
-0.140626 -0.153674 2.539693 157 138 131
-0.138995 -0.007592 2.515143 70 70 72
-0.147795 -0.320474 2.738566 128 118 117
-0.135026 -0.013947 2.515063 130 121 116
-0.131137 -0.011853 2.511036 130 111 105
-0.110816 0.593695 2.140520 51 46 66
-0.130228 0.028599 2.524531 135 154 160
-0.119752 0.414448 2.374493 110 120 147
-0.125518 0.004577 2.513716 90 96 84
-0.115823 0.448722 2.347262 20 19 25
-0.133963 -0.320701 2.738067 122 107 112
-0.121586 -0.027678 2.499421 125 118 112
-0.121881 -0.143451 2.515042 189 182 174
-0.123328 0.290285 2.553445 29 70 54
-0.119985 -0.089152 2.494722 162 159 144
-0.117624 -0.015770 2.501045 141 137 136
-0.114770 -0.126093 2.503218 162 133 117
-0.113836 -0.144428 2.510415 182 170 154
-0.112392 -0.171872 2.523321 208 191 173
-0.114641 0.119767 2.588338 73 83 82
-0.109399 -0.069040 2.488878 169 174 170
-0.107961 -0.080032 2.490436 77 64 55
-0.107597 -0.119021 2.497116 183 166 159
-0.093944 0.496411 2.192918 139 172 165
-0.106120 -0.155659 2.511073 193 184 175
-0.102960 -0.115292 2.492796 132 107 100
-0.102960 -0.115292 2.492796 132 107 100
-0.101075 -0.024473 2.491220 63 53 51
-0.101075 -0.024473 2.491220 63 53 51
-0.100668 -0.072258 2.485134 76 65 63
-0.086278 0.569899 2.141314 120 149 163
-0.086278 0.569899 2.141314 120 149 163
-0.101868 0.069348 2.529692 140 152 164
-0.105365 -0.255381 2.683215 217 231 216
-0.097212 0.042002 2.508501 145 167 165
-0.095814 -0.084692 2.483232 173 194 199
-0.095814 -0.084692 2.483232 173 194 199
-0.095938 -0.107804 2.487083 170 166 154
-0.095516 -0.020488 2.485714 125 112 103
-0.093478 0.012877 2.494855 67 66 61
-0.089211 -0.052176 2.480385 172 178 178
-0.088597 -0.043310 2.480369 163 173 174
-0.086747 0.008641 2.490608 114 99 102
-0.085490 0.022676 2.493498 135 148 157
-0.084869 -0.041861 2.477651 50 57 65
-0.091396 -0.304469 2.682445 101 119 129
-0.084032 -0.153140 2.496713 203 200 195
-0.081724 -0.099442 2.478119 173 160 154
-0.081519 0.039762 2.497168 147 165 167
-0.080730 -0.010339 2.481777 121 120 118
-0.079052 -0.123857 2.483585 180 157 143
-0.075329 -0.092335 2.474820 72 67 63
-0.074993 -0.032374 2.475605 132 138 136
-0.077211 0.115223 2.555298 71 81 80
-0.077211 0.115223 2.555298 71 81 80
-0.078100 0.137446 2.584893 110 119 118
-0.074999 0.038719 2.496265 150 165 162
-0.072344 -0.083925 2.471379 185 200 197
-0.071146 -0.055324 2.471973 162 176 177
-0.070793 -0.120824 2.478095 188 189 184
-0.071193 0.033190 2.494819 83 79 78
-0.070259 -0.107487 2.474326 163 158 154
-0.077372 -0.373223 2.727146 105 93 97
-0.076152 0.197055 2.727237 78 84 80
-0.068074 -0.091502 2.471349 175 190 187
-0.066278 -0.103280 2.472800 94 87 79
-0.063738 -0.073340 2.468934 167 183 180
-0.062850 0.037239 2.490512 146 164 168
-0.061573 -0.026479 2.466937 153 156 145
-0.051972 0.580446 2.130715 114 154 190
-0.060284 0.034198 2.487823 151 161 160
-0.050939 0.570366 2.127467 42 57 86
-0.050429 0.541403 2.138790 50 55 97
-0.052904 0.490207 2.259021 110 113 130
-0.055062 -0.103938 2.468063 179 190 184
-0.054970 0.036710 2.488603 139 153 154
-0.054164 -0.114901 2.471285 167 168 160
-0.054634 0.057881 2.499205 143 164 169
-0.052725 -0.093692 2.465769 191 203 203
-0.052725 -0.093692 2.465769 191 203 203
-0.052292 -0.047620 2.466267 143 167 171
-0.050409 -0.109471 2.467260 90 78 78
-0.049294 -0.116027 2.469189 104 101 96
-0.049388 0.050226 2.497088 125 138 147
-0.047117 -0.034572 2.467126 47 51 52
-0.046301 -0.089248 2.464412 90 94 80
-0.038381 0.524013 2.114053 56 49 100
-0.045005 0.071198 2.504811 138 153 156
-0.044005 -0.077204 2.461734 101 112 104
-0.042208 -0.096293 2.462815 191 206 201
-0.041034 -0.048679 2.461950 162 177 172
-0.040432 -0.085031 2.462326 178 198 189
-0.040148 -0.025124 2.465257 50 55 58
-0.040094 -0.105455 2.464683 166 165 163
-0.038613 -0.181473 2.490788 220 228 249
-0.038613 -0.181473 2.490788 220 228 249
-0.030226 0.569162 2.130187 78 99 128
-0.031043 0.484463 2.260822 30 27 34
-0.036436 -0.330303 2.656748 87 108 111
-0.030937 -0.099357 2.460482 170 178 180
-0.030937 -0.099357 2.460482 170 178 180
-0.030705 -0.107412 2.461287 166 162 153
-0.026109 0.515149 2.137896 148 138 172
-0.030069 -0.021295 2.462815 93 97 98
-0.031223 -0.307933 2.659829 79 85 97
-0.031223 -0.307933 2.659829 79 85 97
-0.028560 -0.044487 2.460051 146 167 170
-0.027670 -0.002945 2.466923 75 90 83
-0.027606 -0.013306 2.463858 83 89 85
-0.027070 -0.032833 2.459354 148 173 169
-0.027286 0.045598 2.485235 148 165 173
-0.025239 -0.086711 2.457831 175 196 191
-0.025142 -0.021458 2.461983 149 167 167
-0.024950 -0.005618 2.465944 89 100 96
-0.024643 -0.039133 2.461729 59 63 62
-0.024643 -0.039133 2.461729 59 63 62
-0.024579 -0.045680 2.460321 147 165 169
-0.020967 -0.345332 2.643557 115 135 146
-0.018780 -0.051479 2.458330 76 72 69
-0.018780 -0.051479 2.458330 76 72 69
-0.019487 -0.249209 2.558053 206 226 217
-0.018649 -0.009617 2.463277 152 173 176
-0.018102 -0.021449 2.461201 114 118 117
-0.017811 -0.058169 2.456184 149 167 167
-0.018356 -0.348712 2.638222 13 24 44
-0.018356 -0.348712 2.638222 13 24 44
-0.015367 0.012772 2.469367 161 178 172
-0.014539 -0.047387 2.456622 156 171 178
-0.014539 -0.047387 2.456622 156 171 178
-0.014329 0.039691 2.480286 157 173 163
-0.013147 -0.093177 2.456203 162 163 155
-0.012796 0.008879 2.467886 113 117 118
-0.012747 0.217230 2.700670 50 66 63
-0.011272 -0.002913 2.463978 114 120 110
-0.009930 -0.043013 2.457270 104 105 91
-0.008640 -0.184381 2.483457 201 198 191
-0.007151 0.520287 2.110354 116 135 149
-0.008140 -0.098572 2.456041 114 103 99
-0.006567 -0.093177 2.455104 155 154 149
-0.005446 0.113335 2.524736 119 137 137
-0.004943 0.108434 2.529401 112 128 118
-0.004215 0.446309 2.237585 89 133 182
-0.004454 0.026856 2.473001 150 168 170
-0.003965 0.033033 2.474958 152 176 178
-0.004077 -0.326678 2.676895 30 31 26
-0.002985 0.514017 2.113174 48 53 59
-0.003102 0.046032 2.480742 139 169 167
-0.002101 -0.084242 2.454356 172 196 200
-0.001976 -0.044902 2.455974 92 95 86
-0.001968 0.019777 2.471585 80 84 83
-0.000222 0.253839 2.712034 123 136 129
0.002404 -0.106157 2.456179 176 174 177
0.002515 -0.178102 2.479720 115 106 109
0.002635 0.042888 2.478598 107 118 114
0.002635 0.042888 2.478598 107 118 114
0.002702 0.022688 2.470947 146 167 162
0.004154 -0.185356 2.481747 209 213 199
0.004359 -0.199755 2.493540 90 83 73
0.006690 0.092188 2.506584 107 113 111
0.007608 -0.149682 2.465476 86 85 81
0.007872 -0.173166 2.474022 104 120 110
0.009446 0.218434 2.693653 72 79 72
0.010768 -0.140518 2.460507 126 117 118
0.010008 0.449753 2.221868 94 137 180
0.011091 -0.108022 2.454430 166 172 162
0.011499 0.020804 2.468024 148 168 166
0.013480 0.061069 2.484932 71 65 65
0.013697 0.069041 2.489922 42 43 45
0.015168 -0.089559 2.452702 153 157 143
0.016203 0.358094 2.525084 94 97 90
0.016193 -0.108025 2.454078 102 96 98
0.018952 -0.118565 2.455072 184 185 179
0.020128 0.058709 2.485481 115 117 116
0.020418 -0.110274 2.453227 188 189 183
0.020523 -0.114453 2.453646 51 45 49
0.023033 -0.073928 2.451400 48 48 46
0.023120 -0.049927 2.452775 53 55 52
0.024759 -0.152257 2.465340 189 200 184
0.025439 0.066584 2.488757 53 59 59
0.026041 -0.046165 2.453254 152 168 167
0.026173 -0.063084 2.451482 79 85 81
0.027353 0.019528 2.467596 154 170 170
0.027561 0.050014 2.481048 118 129 135
0.027348 -0.077326 2.450797 157 176 174
0.028418 -0.091187 2.451536 118 123 117
0.029189 -0.052435 2.451549 45 51 51
0.029189 -0.052435 2.451549 45 51 51
0.030705 -0.043870 2.452539 77 84 76
0.033871 0.102226 2.511840 100 96 84
0.035868 0.011256 2.465494 96 101 104
0.036324 0.051277 2.481402 119 138 152
0.036776 -0.054100 2.453212 39 45 41
0.038709 0.056773 2.486898 38 36 39
0.040021 -0.090548 2.451113 173 189 178
0.041442 -0.099027 2.449555 167 175 177
0.042464 0.046672 2.481328 122 135 143
0.046134 -0.094436 2.451694 76 82 72
0.047606 -0.062423 2.451138 127 140 131
0.048280 -0.100009 2.453203 178 200 197
0.049012 0.061867 2.488761 55 45 46
0.048654 -0.107221 2.454491 150 161 155
0.050227 -0.088998 2.451677 143 145 142
0.056255 0.040888 2.476534 142 165 173
0.056566 -0.118687 2.456451 179 191 191
0.058136 -0.174831 2.475114 83 89 89
0.058049 -0.078449 2.455720 122 118 109
0.058032 -0.099335 2.453510 169 174 168
0.061493 -0.083328 2.457678 73 69 68
0.055899 0.359255 2.229763 180 213 244
0.063163 -0.106177 2.455190 62 62 52
0.064595 -0.130710 2.459309 200 219 217
0.065829 0.044447 2.480989 132 151 158
0.065672 -0.035322 2.455482 162 179 173
0.065837 -0.121078 2.457600 187 203 202
0.067229 0.082502 2.499130 107 105 106
0.067460 -0.109936 2.455357 143 148 142
0.067960 -0.092295 2.454796 145 140 121
0.070136 -0.127476 2.459452 69 78 75
0.071901 -0.085392 2.453721 131 121 112
0.072143 -0.114339 2.459613 73 70 65
0.075842 -0.109219 2.456174 68 58 57
0.076411 -0.095856 2.455308 66 61 57
0.077918 -0.116360 2.457313 181 182 174
0.084895 0.214126 2.676675 75 85 61
0.078137 -0.086889 2.454571 48 46 47
0.078338 -0.105136 2.454824 141 140 136
0.071927 0.346256 2.222937 103 147 192
0.080997 -0.071290 2.454444 47 51 63
0.080997 -0.071290 2.454444 47 51 63
0.083161 -0.067771 2.455276 52 59 65
0.075502 0.358000 2.220748 41 39 53
0.084590 -0.079639 2.454521 131 119 107
0.084980 -0.057956 2.456189 73 88 83
0.079908 0.362647 2.220944 173 204 235
0.089009 -0.124387 2.459846 104 105 89
0.091801 -0.106572 2.458417 126 102 90
0.083550 0.357822 2.219552 42 57 86
0.094265 -0.128763 2.461829 202 223 216
0.099277 -0.058086 2.457929 116 129 111
0.103125 0.055676 2.493832 109 131 144
0.108062 -0.076289 2.458675 156 179 173
0.111796 -0.093185 2.460392 179 199 190
0.114954 -0.077502 2.450219 159 177 177
0.119517 -0.088851 2.462720 166 187 180
0.144564 -0.081099 2.472334 62 63 65
0.218319 -0.377156 2.696002 70 57 64
0.226222 -0.386108 2.691645 194 197 176
0.234258 -0.369460 2.687150 136 137 105
0.255072 -0.364066 2.690069 124 127 106
0.272654 -0.381296 2.688009 86 91 84
0.295530 -0.362621 2.688612 143 149 121
